ply
format ascii 1.0
element vertex 1242
property float x
property float y
property float z
property uchar red
property uchar green
property uchar blue
end_header
-0.625044  0.474729   8.83175 116  43  88
0.675191 0.489251  7.31916 42 43 71
0.729652 0.631916  7.14741 171 180 179
-1.16363  1.02744   7.4211 16 52 48
-0.790093   1.09007   7.32762 17 59 49
-0.784881   1.10846   7.30189 170 195 189
1.12881 1.25641 6.94741 23 22 17
1.22253 1.25968 6.92687 179 180 174
1.38185 1.26389 6.88164 39 31 12
-0.835775    1.1797   7.12405 201 216 197
-1.08353  1.18948  7.05988 191 197 193
0.868546  1.32839  6.77479 14 41 36
1.10394 1.33733 6.72633 59 86 81
  1.414 1.35217 6.64367  6 56 29
-0.799127   1.31306   6.79214  67 107  98
-0.87202   1.3122  6.78164 112 123 117
0.481907  1.38734    6.627  3 35 24
-0.310597   1.35634   6.71696  0 35 27
-0.889507   1.32385   6.76553 186 193 186
-1.13396  1.31305  6.74603 180 190 182
1.00386 1.43512 6.45092 25 60 56
0.642285    1.432  6.50866 177 183 179
0.917779  1.44463  6.47182 181 186 179
-1.45263  1.33783  6.65106 23 63 55
-1.31626  1.34951  6.63983 176 195 191
-1.36068  1.34787  6.63577 174 192 192
-1.21456  1.36231  6.62838 164 191 186
-1.26792  1.36468  6.61939  4 56 33
-1.09175  1.37633  6.61534 162 191 186
-1.27501  1.38025  6.57847  0 51 28
-1.41413  1.36943  6.57477 171 190 188
-1.36078  1.37538  6.57268 174 195 190
-1.32773  1.37882  6.56881 168 183 180
1.20859 1.50705 6.25928 160 183 177
-1.22507  1.39003  6.55124 175 191 188
0.922088  1.50111  6.30213 162 183 178
0.978383  1.50241  6.28982 163 186 180
0.695133  1.49477  6.33392 167 192 188
0.798257  1.49873  6.32171 155 182 175
1.24515 1.51436 6.21928  8 62 46
1.29474 1.51551 6.20128 28 67 48
0.772797  1.50505  6.30201 17 47 45
0.371623  1.48801  6.35611 13 48 41
0.815216  1.50357  6.28817 16 51 45
0.938869  1.50913  6.24897 169 188 186
1.16877 1.52112 6.21273 199 212 195
-1.5051 1.39062 6.53783  84 113 109
0.689883  1.50928  6.29372 195 201 187
1.08309 1.52241 6.22078 165 188 180
-1.41495  1.40752  6.50065  9 48 43
0.0951957  -1.46639   6.42727 28 33 27
0.443256 -1.38847  6.70548  0  7 15
0.833189 -1.25691  6.87614 34 56 79
 5.79077 -2.44157  15.6006 161 172 176
-2.71304 -2.26426  14.9898 106 126 159
 3.30146 -1.95135  13.7804 154 168 169
 6.32145 -1.71423  12.7489 143 150 158
-6.09003 -2.20807  15.0768 168 174 200
6.80175 -1.5932 12.5532 155 161 159
 6.60218 -1.52023  12.2969  84  96 122
  3.8381 -1.64516  12.9788 146 157 161
 3.62312 -1.53281  12.6916 147 154 162
 3.55204 -1.46439  12.5602  95  99 126
 5.10367 -1.36648  12.3603  81  90 123
-4.76447 -1.82735   14.806  95 119 155
  4.7345 -1.33229  12.4865 102 111 126
 2.49412 -1.37555  12.6734 154 166 166
 2.57752 -1.33514  12.5332  92 103 125
  2.0244 -1.19027  12.6516  91 101 128
-3.58159 -1.34456  13.7635  89  97 144
  3.62788 -0.916007   11.2001  87  93 125
 2.51241 -0.64207  10.8303  80  90 126
 -2.27899 -0.887835   12.7056  98 115 145
  2.44701 -0.235701   10.5335  68  78 114
 -0.171892 -0.0633091    7.28246 47 45 56
 0.20551 0.329682  9.14546 77 32 52
-0.687371   0.37526    8.9932 196 186 195
-0.605479  0.449554   8.85494 179 167 177
2.71812  0.6275 8.71089 150 157 150
-0.765209  0.563482   8.55078 192 184 197
-1.18924  1.01251  7.44087 169 194 190
-1.04694  1.05725  7.38672 178 190 190
-0.764055   1.08246   7.38247 176 203 196
-0.930399   1.09381    7.3131 22 53 45
-1.1684 1.08024 7.28796 180 192 188
-0.781381   1.12863   7.26334 15 50 44
1.13266 1.27202 6.90162 207 202 183
-0.788887   1.18494   7.10989 165 191 188
-1.00416  1.17679  7.09688  2 51 32
-0.76297   1.2166  7.02779 214 208 192
1.26949 1.31596 6.76023 202 210 189
 1.1479  1.3146 6.77902 203 205 191
0.88918 1.31087 6.81937 176 187 183
1.02845 1.32163 6.78575 204 203 185
0.970686  1.32199  6.77695 162 177 172
1.43463 1.33592 6.68349 174 187 178
1.19577 1.33189 6.71985 211 204 186
-1.51527  1.22965  6.91368 175 197 194
-0.818375   1.30328   6.83109 178 193 186
-0.235244   1.34426   6.76552 167 176 171
-0.136289   1.34452   6.71902  4 16  6
0.388893  1.39551  6.59353  0 34 28
1.06558 1.42604 6.48738  7 58 27
0.924001  1.42885  6.49802 34 56 53
-0.996156   1.38745   6.59659 102 145 136
-1.34833  1.36637  6.60184 16 53 46
-1.52245  1.37511  6.55453  4 53 34
 1.3416 1.52041 6.20308 10 47 40
0.667553  1.50371  6.33317  5 50 30
-1.09571  1.41835  6.51762  9 48 43
-1.4829 1.39471 6.52454  77 108 103
0.629888  1.59596  6.08066 177 184 177
0.409589 -1.32277  6.71248  2  9 17
0.426138 -1.29843  6.72198 72 85 93
 3.68416 -1.83061  13.3855  96  96 130
 6.38897 -1.64069  12.5288  78  85 111
 2.47065 -1.81739  13.8739  82  93 125
 2.64633 -1.79223  13.7764 153 164 170
  3.5894 -1.65726   12.945 144 151 157
 6.02044 -1.50315  12.3875  98 113 146
-3.75032 -1.98554  14.6998 101 121 156
 5.19071 -1.54136  12.7276 157 168 174
 4.73973 -1.49984  12.7375 152 163 165
 5.09467 -1.47553  12.6304  79  86 115
 4.75621 -1.38188  12.5003 152 162 163
 0.577214 -0.844923   7.32217 10 20 21
 2.10545 -1.14971  12.5154 155 166 168
   2.46694 -0.0600821    10.4124  61  75 104
  2.47148 0.0103297   10.3324  62  76 103
0.768049 0.272081  7.36081 109 115 111
0.248842 0.316851  9.17291 149 140 143
0.686274 0.316218   7.3469 23 31 42
0.0328423  0.400705   8.98271 76 29 49
-0.61009 0.379724  9.00451 198 173 192
0.209689 0.421241  8.95641 117 119 114
0.650727 0.542253  7.32717 164 167 172
  1.5352 0.795625  8.04688 189 188 184
2.41046 1.02477 7.92371  77  84 112
1.19033 1.25211 6.94079 33 21  5
1.32804 1.25731 6.86834 184 185 179
-0.719883    1.2581   6.93218 183 189 185
0.994112  1.34234  6.74047  0 31 24
1.29593 1.35906 6.62324 213 206 188
0.948566   1.3576  6.69131 207 201 185
 1.1871  1.3639 6.63928 211 205 189
-1.06678    1.273  6.83569 190 196 192
-1.28278  1.26712  6.83077 10 52 28
0.650083  1.36653  6.62407  0 29 23
1.08938  1.4081  6.5227 169 190 183
-1.26974  1.28927  6.77764 184 190 190
-0.716609   1.32949   6.77276 19 54 48
0.57698 1.39409 6.60545 14 54 30
0.700888  1.39919  6.57389 165 180 175
-1.09052  1.30814  6.74775 189 194 188
0.841862  1.41171  6.55104 210 203 187
1.02678 1.42144 6.50393 211 208 191
0.661423  1.41479  6.55653  0 29 23
-0.14437  1.38707  6.63853  4 33 28
-0.0732881    1.39464    6.63274 201 202 184
0.555198  1.42461  6.55046  0 32 25
-0.898797   1.34974   6.68727 178 193 186
1.06251 1.44206 6.43702 177 186 181
-0.37018  1.39924    6.622 174 186 182
0.113348  1.42863  6.54861  1 34 27
1.00431 1.45701 6.40756 211 205 189
-0.586641   1.39299   6.63388 13 55 43
-1.43873  1.35734  6.61164  4 53 31
-1.23939   1.4018  6.52215 11 51 43
0.517444  1.52257  6.30215  9 41 36
1.61436  1.8735 6.22575  69  76 104
 5.05181 -1.72646  13.0549  84  92 128
 5.44737 -1.67137  12.7412  94 108 137
 5.16721 -1.68773  12.9471 153 160 166
-3.46933 -2.05746  14.6287  95 120 160
-4.76785 -2.13635  15.1032 101 119 157
 4.94085 -1.66241  12.9757 154 159 165
-3.94086  -2.0761  14.8983  85  97 147
 5.4072 -1.5896 12.7134 148 157 156
-3.63608 -2.01213  14.6508  97 119 160
 5.34321 -1.50437  12.6491  75  79 117
 2.49824 -1.49807  13.0489 155 166 162
2.28377 -1.3218 12.7123 161 173 173
 3.8001 -1.1471 11.7383  89  94 123
 4.91705 -1.10517  11.7459  92 106 133
 5.16622 -1.08014  11.7498  76  82 116
  5.3918 -1.08649  11.7665  90 102 128
-1.96752 -1.46228  13.8223 147 166 173
5.02883 -1.0491 11.6423 150 156 154
 2.31448 -1.19583  12.4779 162 173 167
 5.26884 -1.02275  11.6546 155 160 156
 3.82129 -1.02831   11.498  84  91 120
-2.03278 -1.37166  13.7825  75  88 130
  5.18092 -0.948677   11.5624  78  89 117
  3.41226 -0.888721     11.26  85  92 120
  3.72033 -0.762009   10.9199 159 164 158
-1.15106 -1.00015  12.6078  89 113 141
  4.83505 -0.357328   10.0925 149 154 150
  4.14708 -0.373889   10.0496 150 152 147
  4.88554 -0.315268   9.92466  77  84 112
  4.23109 -0.301317   9.92962  74  81 110
  -3.56188 -0.0299823    11.0006  96 120 148
-0.81046 0.247661  9.29288 191 189 194
-0.887294  0.311586   9.09441 132  45  96
-0.847397  0.340789   9.02869 196 186 195
0.519726  0.42589  8.92044 119 118 116
-0.632862  0.511173   8.70434 189 178 186
-0.692052  0.537218   8.59774 124  34  86
-2.70586 0.684225  9.01263  83 107 131
-0.782813  0.734714   7.70156 189 191 190
-1.05742 0.917924  7.71993  78 135  80
-1.33603    1.035  7.37953 14 55 49
-0.721634   1.07145   7.34785 11 22 18
-0.809262   1.07868   7.32642  8 48 40
1.49443 1.21524 6.87999 179 186 179
1.46586 1.26145 6.83979 10 51 37
1.20994 1.27146 6.87162 212 204 185
-0.915844    1.1831   7.12137 185 191 187
-1.26164  1.15976  7.11393  9 52 43
-0.978305   1.19485   7.05448 210 209 191
-1.43367    1.174  7.03374 182 191 188
-1.01532  1.21378  7.01785 14 56 52
-1.39978   1.2298  6.92239 192 193 188
1.10055 1.35975 6.66061 181 188 181
1.02004 1.35984 6.67581 212 206 190
-0.482531   1.30189   6.83512  0 50 32
-0.979209   1.28112     6.881 188 193 189
-0.885966   1.28792   6.84923 186 190 189
-1.42449  1.28656  6.79448 191 193 188
0.780063  1.40772  6.58044 203 204 188
0.530658  1.40091  6.59542 206 205 187
-0.319012   1.37783   6.69728  0 31 24
-0.966765   1.33776   6.72159 190 192 187
0.803362  1.42861  6.52002  9 46 38
0.744304  1.42516  6.51111  6 41 34
0.840945  1.44377  6.46643 212 207 188
-0.295304   1.39888   6.61755 209 206 191
-0.133519    1.4127   6.59409 208 205 186
0.31101 1.43277 6.54189 170 181 177
0.762419  1.44796  6.45275 208 207 189
1.10786 1.45654 6.38667 187 190 183
0.898625   1.4583  6.43967 181 188 181
1.30448 1.49085 6.28454 10 47 39
-1.18511   1.3771  6.57973  7 49 39
-1.11329  1.38607  6.56702  1 50 31
-1.07116  1.39028  6.57501 163 194 188
 3.2211 1.61615 6.17674  72  79 107
0.739175  1.50551  6.30276 178 197 193
0.894117  1.50809  6.28128 190 183 167
1.72217 1.90541 6.12917  57  65 104
1.89085   1.954 6.01432  69  89 113
-1.78737  1.88895  6.60314 32 38 54
0.468064  -1.0723  6.80784  1  8 16
 3.42833 -2.38828  15.7004 139 147 170
-5.70432 -2.37638  15.2857  94  96 153
 5.0202 -1.8505 13.3799  80  82 123
 4.80261 -1.80283  13.4765  97 115 137
 5.08091 -1.59066  12.8482  78  86 122
-5.79385 -1.92222  14.8646 154 166 178
-6.01726 -1.74889  14.7211 161 170 177
-2.85618 -1.57645   14.024 160 175 182
-2.07406 -1.54111  13.8622  95 115 148
   6.204 -1.06074  11.7324 160 165 161
-5.75228 -1.57689  14.4916 157 169 181
-5.54998 -1.58209  14.5855 206 210 222
 2.56058 -1.14719  12.2764 152 162 161
 2.56395 -1.03492  12.0279 148 160 158
-1.94657  -1.2627  13.5008 135 152 160
  3.82072 -0.886965   11.1631  83  92 123
 3.81146 -0.73056  10.7715  83  90 118
  5.16223 -0.578179   10.4847  83  84 112
  4.04577 -0.587799   10.4057  97 112 131
  4.94714 -0.552629   10.4201  88  99 121
  2.34585 -0.628319   10.8419 147 159 155
  3.92785 -0.506229   10.2646 149 155 145
  5.17213 -0.445348    10.207  74  80 112
  4.15511 -0.229385   9.85932 157 157 147
  5.06147 -0.173307   9.62904 159 159 149
  4.22306 -0.159014   9.71573  87 104 124
 -1.07799 -0.301651   11.1562  78  94 128
 -2.74494 -0.312299   11.5196 147 161 162
   3.50197 -0.0408205    9.97673 165 168 157
 2.38453 0.696591  8.87196  73  85 111
-0.924534  0.529435   8.60002 196 187 192
 2.27251 0.736908  8.90777  77  89 111
 3.82742 0.970424  7.85551 152 151 133
3.11707 1.00467  7.7271  84 101 111
3.57606 1.20788  7.4403 150 153 136
-1.14061  1.01096  7.42271 12 53 47
-1.45496  1.01244  7.44082  7 52 45
1.05732 1.29256 6.85804  0 28 20
1.18756 1.29563  6.7474 13 48 42
1.28024 1.33707 6.72636 180 186 182
-0.920767   1.26081    6.9093  0 48 29
-1.32497  1.24099  6.91105 215 212 195
0.967467  1.38762  6.63933  6 41 35
-0.350476     1.345   6.74999 166 181 176
0.62407  1.4036 6.60391 190 189 187
-1.18343   1.3102  6.73156 191 193 188
-0.460768   1.41229   6.59379  5 47 43
0.650737  1.46784  6.43335  0 37 29
0.552265  1.46933  6.44555  0 37 29
0.724375  1.47125  6.36554  2 39 31
0.956325  1.48276  6.34826  5 45 37
-1.45058  1.37628  6.56665  1 55 32
0.427598  1.49296  6.35935 206 213 197
1.19783 1.51369 6.21262 164 189 183
2.00902 2.03201 5.77107  77  95 115
0.579314 -1.18029  6.92388  3 12 21
-3.37179 -2.45142  15.5507 113 134 163
-4.13614 -2.04788  14.9105  69  86 132
-6.16514 -2.07319  14.9961  86  94 143
 -5.9034 -2.04035  14.8833  78  91 136
-4.35601 -2.01974  14.9782  60  80 130
-3.02868 -1.92824  14.4655  76  92 144
 -2.7974 -1.89481   14.401  80 106 141
 -3.2509 -1.90321  14.4924  80 104 138
-5.68257 -1.81557  14.8264  76  90 137
-2.74145  -1.6413  14.0574  94 122 159
-3.18629 -1.59665  14.0671 101 125 161
-5.88949 -1.64676   14.607 109 125 159
-1.64176 -1.43865  13.7264  71  84 126
 2.43522 -1.17922  12.3779  77  92 125
 2.68458 -1.10494  12.1179  89 110 137
 2.46659 -1.03788  12.1335  77  90 125
  2.24113 -0.964201   12.0528  90 110 137
  3.81208 -0.561228   10.3635  75  86 118
  3.48957 -0.384194   10.3093 150 156 146
 -1.18267 -0.545651   11.5662 151 161 162
  3.42422 -0.276642   10.3024  91 113 127
  3.71323 -0.261625    10.118 157 162 158
-0.604848 -0.407771   11.1803  61  79 117
  3.50398 -0.203547   10.1631 156 159 148
  2.91165 -0.188785    10.262  92 114 127
  2.60909 -0.190974    10.417 148 159 153
  3.41996 -0.105515   10.1057  70  79 108
   4.15088 -0.0652544    9.66951 155 151 140
  2.39569 -0.113769   10.4651 149 156 149
   2.84131 -0.0775117    10.2137 156 162 152
  -2.6117 -0.265206   11.4405  88 109 138
   2.63209 0.00816021    10.2696 153 166 159
  3.72924 0.0798616   9.75361 151 157 145
  3.9605 0.133998  9.62259 146 149 138
 2.85281 0.106946  10.0457 154 158 143
 3.90178 0.304457  9.09836 149 151 140
  2.8619 0.289868  9.87592 161 163 149
 2.62792 0.337123  9.84395 153 161 146
 3.35034 0.394047  9.03832  95 112 122
 2.58528 0.564821  9.25299 154 162 149
 4.09183 0.606349  8.46013 162 159 142
 2.34776 0.578969  9.23628 153 161 146
-1.83615  0.41654  9.88474 146 157 153
 3.63707 0.676994  8.51583 158 157 139
  3.4106 0.675829  8.51889 155 154 136
 2.52824 0.788835   8.5238 157 157 145
 3.71674 0.915894  7.99258  76  82 106
3.81859 1.08852  7.6558 167 165 150
-1.97912 0.888258  8.67465  79  90 122
2.67444 1.07526 7.60782 170 166 154
-1.30297  1.02553   7.4086  7 48 42
3.33176 1.28702 7.18372 154 151 132
-0.876402   1.09469   7.32042 182 191 186
-1.19401   1.1158  7.26013  7 50 43
-1.07425  1.12931  7.21386  7 50 41
-0.872471     1.149   7.16457  8 48 40
-1.32628  1.14262  7.14469 216 213 194
-0.717541    1.2094   7.07033 180 190 182
1.22921 1.37453  6.5882  1 50 29
1.05655   1.394 6.61252  4 44 36
1.22096 1.44815 6.40615 183 189 185
0.175298  1.41794  6.58989 174 185 179
-1.18144  1.34341  6.62972  5 46 40
-0.951637   1.38059   6.70113  3 48 41
1.23269 1.47951  6.3144  0 46 30
-1.3907 1.35213 6.62185 45 57 43
1.05084 1.48556 6.38225  3 43 35
-1.23276   1.3739  6.59247 35 54 50
0.622141  1.47528  6.40643  0 46 28
0.529751  1.49675   6.3419 202 209 193
0.769283  2.06518  5.74349  72 100 124
-5.68061 -2.00713  14.9015  78  89 143
  2.72134 -0.616075   10.8513  86 107 126
  3.82353 -0.389264    10.198  72  85 117
  3.60139 -0.328424    10.223  90 111 128
  2.71332 -0.315126   10.4747  88 113 133
  2.73517 -0.127126   10.3363  90 112 126
   3.83325 -0.0301957    9.83667  68  79 107
  2.50786 -0.051388   10.3531  69  82 114
   2.91674 -0.0167829    10.0938  81  88 116
  4.04518 0.0690338   9.57567  97 114 130
  2.74516 0.0578075   10.1523  67  81 110
 2.53098 0.138361  10.2043  68  83 114
2.95539 0.16328 9.93198  81 100 117
 2.75812 0.234926  9.98953  89 107 129
 4.72455 0.378778  9.04876  94 108 121
0.825018 0.211965  7.35245 163 164 159
 3.55586 0.398027  9.00886  85 102 112
3.76266 0.39604 8.97267  67  78 106
 2.70983 0.492804  9.39185  93 115 129
 3.97743 0.550445  8.58096  80  96 112
-2.61333 0.391207  9.71123  86 108 129
 3.86856 0.656653  8.49368 153 151 138
3.92287 1.01984  7.7395  81 104 112
-0.971838  0.849927   7.90627  76 136  84
2.45625 1.02743 7.84299 153 153 141
2.23353 1.08828 7.85888 156 160 146
3.69097 1.15004 7.53594  70  80 105
-2.18553 0.974662   8.4097  92 115 133
3.66281 1.24457 7.27246  77  88 110
-1.39399  1.03347  7.39281 188 194 190
-1.10527  1.06914  7.34392 211 212 194
-0.987075   1.09048   7.30459 182 191 188
1.18441 1.21161  7.0787 178 179 171
-0.816484   1.14577   7.21854  7 48 40
3.37453 1.39922 6.68918  88 109 128
-0.854056   1.19802   7.04539 184 189 185
-0.633584   1.23214   7.04702 182 187 183
1.05599 1.33375 6.72275 170 175 169
-1.02271  1.24922  6.97647  9 50 44
-0.0964446     1.3524    6.70403 0 7 3
2.59422  1.5068 6.44495 168 165 156
0.872412  1.43066  6.51127 182 187 181
2.35945 1.52466 6.44097 165 165 155
 1.1522  1.4873 6.26904  3 43 35
2.59302 1.59743 6.22172 165 160 154
2.35788 1.60992 6.21639 165 162 155
2.01461 1.80952 6.02093 112 127 132
0.323478  2.01478  5.86336  74  96 119
0.504516 -1.15579  6.85382  0  5 13
0.713523 0.199073  7.35812  8 18 27
 3.76203 0.574671  8.60556  66  76 101
-0.303338  0.376044   7.05857 112 132 131
 3.76769 0.764035  8.42466  82  89 115
 2.43563 0.772154  8.68968  82  94 118
2.41777 0.88406 8.39761  83  85 106
 2.58009 0.929084  7.97306  97 111 122
  2.3578 0.987677  8.00138  86  90 115
2.34154 1.11734  7.7354  77  87 114
1.62116 1.08544 7.49256 191 192 186
-0.748937  0.999941   7.36482  0 15 12
2.30589 1.28562  7.2758  70  81 111
 2.1968 1.37292 7.17786 179 172 143
-0.813321   1.26388   6.93299  0 49 27
-1.47914  1.26695   6.9154 194 195 190
-1.17369  1.28702   6.8107 218 212 196
-0.989561   1.30988   6.77509 192 194 189
-0.771492   1.34096   6.76966 188 193 189
-0.208385   1.38133   6.69245 181 186 182
0.007728  1.39603  6.59593 155 170 165
0.428042  1.40819  6.57024 173 179 175
2.85848 1.54455 6.33393  79 105 120
2.15071 1.61364 6.47349 160 157 142
-1.31252  1.43462  6.45167  4 45 37
2.58734 1.73011 6.00639 147 147 135
2.34877 1.75317 5.99991 165 162 153
2.44304 1.79123 5.90083  85 109 133
 1.9214 1.88101 6.05105 138 140 129
-0.844749   1.97794   6.09326  79  84 122
0.00560927    2.03007    5.86038  87 109 132
-0.761121  0.468117   8.76383 129  39  93
0.683609  0.64242  7.22154 143 153 152
-1.29082 0.950802  7.50191 10 51 43
-1.11281 0.959563  7.45991  6 47 41
2.51568 1.33847 6.94054  81 102 121
2.25983  1.6144 6.34528  63  77 112
2.47576  1.6682 6.09736  67  80 114
1.82898 1.85466  6.1488 45 64 96
2.23085 1.81292 5.87603  85  93 114
2.13568  1.9027 5.77902 171 165 151
 1.9396 2.03966 5.83335 153 151 139
-1.78683  1.93245  6.24402  78  90 128
-0.329012   2.13175    5.5464 149 155 153
-5.17248  -1.5483  14.3426 145 163 177
-1.54567   1.1582  7.11228  8 51 42
-0.452832   1.36129   6.71771 209 204 185
1.39047 1.58329 6.13671  4 45 37
2.26486 1.71426 6.13642  78  92 129
2.01724 1.89656 5.90696  74 101 122
2.26725 1.93746 5.71402 104 108 133
 2.0565 2.03766 5.73672 114 127 136
0.705936  2.08219  5.64092  71  97 124
1.06565 1.55438 6.18768  3 43 34
0.447383  -1.2878  6.73968 117 139 160
  2.56515 -0.446999   10.6941 196 206 208
  3.91838 -0.295556   10.1042 146 155 154
 -0.822057 -0.0998321    10.0717 154  60  87
-0.0917073 -0.0382903    7.31968 121 100  81
0.745222 0.128997  7.36041 44 41 50
0.650254 0.155694  7.41834 28 29 33
0.742426 0.156499  7.33738 34 41 60
0.659894  0.16946  7.35832 142 150 152
-0.265534  0.203673   7.22364  83  90 100
-0.666413  0.360017   9.02814 255 224 255
-0.238555  0.311114    7.1793 67 74 84
0.678213 0.341645  7.34011 24 27 44
0.704141 0.395285  7.33001 49 56 66
-0.331632   0.41019   6.82731  9 29 28
0.737359 0.488407  7.32698 37 43 59
-0.736106  0.567128    8.5386 137  44  91
-0.683115  0.566125   8.53545 129  48  91
0.730545 0.537837  7.30624 47 53 69
0.689602 0.577541  7.23788 189 194 197
-1.18402  1.04554  7.37115 116 149 120
-0.842479   1.16274   7.11075  50 100  89
1.12009  1.2495 6.97233 214 206 187
1.30348 1.26488 6.89058 84 85 79
-0.984957   1.29907    6.8176 125 128 121
1.38283 1.30415 6.75794 147 145 124
-1.07029  1.32571   6.7304 28 65 58
1.08006 1.34878 6.70508 139 175 163
-1.40004  1.33943  6.64701 178 200 197
-0.559536   1.36216   6.69542 201 214 194
-0.372222    1.3753   6.68114 182 194 190
0.0367866   1.40508   6.58678 173 185 181
-1.43476  1.40133  6.50756 202 218 207
-1.07593  1.40624  6.52957 171 193 191
1.22091 1.41682  6.4784 48 94 81
-1.19833  1.42531  6.47517 160 189 187
-1.13699  1.43309  6.46987 11 56 51
0.374592  1.50228  6.33137 16 53 45
0.886105  1.49983  6.29981 177 200 194
0.63586 1.51105 6.30034 154 184 176
1.35669 1.50281 6.20705 146 177 171
0.440844 -1.30718  6.69476 129 146 164
0.891792 -1.24191  6.93895 106 122 138
 3.97199 -1.49002  12.7259  95 101 125
 5.48261 -0.88246  11.4345 146 155 160
  2.40499 -0.760197   11.4604 149 163 164
-0.159704 0.0148344   7.18071 59 70 76
-0.166953  0.112565   7.24356 29 34 40
0.726148  0.13333  7.35608 156 167 169
0.771645 0.151888  7.34903 34 35 40
-0.189932  0.171825   7.25153 36 38 50
-0.207473  0.222702   7.21695 78 76 90
-0.248693   0.24027   7.22348 186 189 196
0.680356 0.290075  7.34524 32 39 49
-0.132391  0.362879   9.11723 85 32 50
-0.249745  0.339981   7.16625 33 43 53
0.675429 0.490156  7.32559 42 43 71
-0.812997   1.16955   7.14346 18 57 52
1.15362 1.25121 6.96367 169 168 164
 1.3104 1.29109 6.81616 231 236 230
-0.269759   1.34762   6.74102  1 42 38
-0.734645   1.34647   6.73187 184 196 192
-0.337414   1.35994   6.70318 216 238 236
-1.48945  1.34624  6.64891 24 53 48
-1.14532  1.37057  6.61581 169 196 191
-1.38384  1.36231  6.55952 27 56 51
-1.32551  1.37698  6.55919 168 183 180
0.895907   1.4243  6.50424 196 198 195
0.501166  1.48583  6.36377 131 158 149
0.94342 1.51021 6.26589 169 188 186
0.434967 -1.38567  6.66995 12 23 43
 3.53082 -2.00053  13.7653 202 214 226
  4.79988 -0.902334   11.3832  77  84 110
   3.8995 -0.786149   10.8716 151 161 160
  -0.12445 -0.0472498    7.27384 168 178 180
-0.200537  0.132465    7.2356 185 188 195
-0.218484  0.168666   7.23267 183 186 191
-0.232966  0.204876   7.22478 186 191 197
0.715426 0.296289  7.33874 206 215 224
0.708867 0.377272  7.33709 177 184 194
0.747652 0.556927  7.33026 145 151 149
-1.08672 0.915593  7.67358 117 185 136
-0.779036   1.10269   7.26018 170 195 189
-0.515913   1.25631    6.9717 192 209 199
1.03557 1.26415 6.94141 174 183 178
-1.52872  1.26055  6.83361 178 189 185
-1.02122  1.28046  6.85818 210 217 199
-1.44345  1.28574  6.74942 184 193 188
 1.2636 1.31217 6.74441 180 197 191
-0.375752   1.31884   6.80203  2 45 36
0.951478  1.33972  6.74546  7 34 29
0.951848  1.34035  6.74792 19 76 61
1.24393 1.34144 6.68795 222 244 241
-1.5608 1.35302 6.62946 172 194 192
-1.32209   1.3631  6.62129 180 196 193
-0.337039   1.40787   6.60073  0 44 37
-0.0905271    1.41708    6.61334  0 31 24
-1.15524  1.39752   6.5459 168 188 186
1.00718 1.43783  6.4621 25 60 56
1.18405 1.44054 6.41367 62 93 87
0.79787 1.49791 6.31986 220 235 238
 1.2063 1.50472  6.2466 160 183 177
1.31818 1.50902 6.21972 160 183 175
0.590968 -1.49111  6.82083 16 19 36
 6.50668 -1.58168  12.4022 146 153 159
 6.60841 -1.47838   12.343 143 150 156
 3.47159 -1.45194  12.5828  94 100 126
  4.21001 -0.924446   11.2067  88  94 118
 -3.07964 -0.654169   12.2605  89 110 139
  3.76835 -0.326657   10.1419  68  82 111
-0.253568  0.391544   7.09345 154 163 162
0.633828 0.627642  7.21862 172 181 180
-1.25122  1.12273   7.1421 103 130 125
-0.945142   1.22667    6.9189 182 195 188
-1.53969  1.23785  6.86923 11 51 43
-1.06507  1.29607  6.79739 21 58 51
-0.149187   1.36533    6.6912 176 188 184
 1.4111 1.36944 6.60081 177 186 181
-0.776111   1.38114   6.65973  0 51 28
-1.07013  1.38825   6.5702 163 194 188
1.20909 1.40962 6.53962 180 186 182
-1.46853  1.41609   6.5107  8 47 42
0.664417  1.50385  6.32217 10 43 34
1.27002 1.51224 6.22028 164 190 181
 6.12783 -1.91278  13.0898  91 102 124
-5.79662 -2.12415  15.0031 163 175 189
-4.25874 -2.13446  15.0051 151 166 185
-4.47394 -2.08778  15.0431 151 170 185
 6.35112 -1.59516  12.5352 147 157 158
 4.98477 -1.53024  12.7881 143 158 155
 5.52089 -1.40252  12.3895  92 109 137
   3.9169 -0.975535    11.339 149 157 159
-0.952531  -1.02539   12.6468  95 115 140
  -0.9321 -0.892688   12.4494  90 102 142
  5.24531 -0.754247    10.831 142 147 150
  1.18223 -0.793147   11.5714 128 149 176
   1.5801 -0.656385   11.8023 101 122 141
  1.53814 -0.531506   11.2936  78  92 121
-0.0608341   0.403242    9.00754 74 31 50
-0.116602  0.424374   8.95282 123 121 122
0.691428 0.592048  7.22096 190 196 196
-1.11639  1.17853   7.0571 11 48 41
1.13347 1.22149 7.02648 186 185 180
-1.46749  1.22144  6.91743 190 194 193
-1.3258 1.24068 6.91242 191 193 188
-0.6735 1.32077 6.81539 220 235 238
-0.600237   1.32321   6.78699 229 234 238
-0.728698   1.37748   6.67166  9 55 44
-1.11635  1.39214   6.6015  5 50 43
0.526727  1.44709  6.51321 174 183 178
0.772955  1.45387  6.47497 174 185 177
1.27356 1.44085 6.40124 23 91 80
1.29169 1.45735 6.35496 168 188 179
0.740426  1.50621  6.30875 178 197 193
1.28284 2.09679 6.05622 145 148 139
2.30666 2.00011 5.48128  62  71 102
0.474626 -1.41457  6.71663 150 127 109
 5.10408 -1.84718  13.2494 143 151 153
 4.03261 -1.84702  13.4676 207 215 217
-3.37154 -1.98317  14.5391 159 169 179
 3.70707 -1.71982  13.1294  93  96 127
 5.79531 -1.60814  12.5838  82  86 121
  2.4411 -1.69873  13.6002 205 214 223
-4.23936 -1.80146  14.6556 156 164 175
 3.67894 -1.08762  11.5589 146 155 152
 6.40402 -1.08556  11.6904 158 163 166
  6.09827 -0.973592   11.6123  94 111 137
  3.94094 -0.601434   10.4471 141 151 143
  4.22268 -0.429552   10.1095 100 113 129
   5.0593 -0.289668   9.84831 146 155 150
  4.75014 -0.293619   9.97601  79  84 116
-0.88669 0.428951  8.85996 201 185 195
-1.34626  1.29279  6.76335 238 238 236
-0.748591   1.30606   6.81432 187 193 189
1.14048 1.32109  6.7714 178 183 177
-0.524847   1.32954   6.77458 210 207 190
0.498231  1.36928  6.64706  7 47 39
-0.540371   1.38041   6.65725 179 184 180
0.907766  1.40428  6.54825 180 186 182
1.20427 1.51773 6.23315 164 189 183
 5.20309 -1.77159  12.9112  93 110 138
 3.74968 -1.42527  12.4207 103 110 136
6.30598 -1.1492 11.8294  87 108 139
  2.60473 -0.901445   11.8161 143 153 152
 2.58327 -0.65529  10.8673 144 155 151
  3.70286 -0.587953   10.4186 136 147 141
   4.8472 -0.485755   10.3253 146 151 144
 0.728148 0.0703474   7.46193 189 155 120
 2.43065 0.253153  10.1606 146 156 148
0.326587 0.306842   8.9776 87 34 60
 3.41577 0.510952  8.69219 148 146 133
-0.750686  0.663139   8.10629 190 192 189
-1.2395 1.06508 7.35993 187 193 191
2.23924 1.20086 7.67517 159 159 147
2.70632 1.21644 7.24009  85 106 123
-1.07466   1.2101  7.02774 188 193 189
-1.20237  1.22878  6.94795  0 50 32
-1.40254  1.32795  6.78216  5 48 41
0.137612  1.37313  6.63753  0 17 13
0.860035  1.37779  6.58347  0 30 23
0.081065  1.40034  6.59964 177 186 181
0.391578  1.42941   6.5444 177 183 179
1.31913 1.46023 6.36168  77 104  97
-1.88293  1.81349  6.67426 115 127 127
-1.66663  1.87884   6.3562 158 159 154
-2.12692  1.92945  6.09775 159 158 153
0.136159 -1.45581  6.57677 167 133 106
  2.35662 -0.852713   11.6915 139 151 151
  1.46965 -0.427709   10.9699 152 162 163
  2.82653 -0.253141   10.3825 149 159 150
  3.42362 -0.106677   10.1144 128 141 173
  3.94836 0.0266027   9.73148 141 147 135
 4.79249 0.285377  9.06578 151 151 139
0.168485 0.301065  9.15672 89 33 60
 1.36014 0.774227  7.87555  96 103 132
 1.48543 0.823807  7.98739  65  83 133
   3.621 0.875679  8.07671 138 140 129
 3.36554 0.968438  7.82955 154 152 137
2.62677 1.05719 7.81034  82  99 115
-0.751573   1.12026   7.33626 189 200 196
-1.18692  1.10861  7.21418  7 50 43
-0.978751   1.14855   7.12776  7 50 43
2.00048 1.25497 7.67418 151 158 142
-1.05989  1.17852  7.06178 191 193 188
-0.849473   1.19185   6.99799 233 239 237
1.98478 1.35736 7.42088 141 147 133
-0.278654   1.32244    6.7799  0 27 23
 1.0556 1.33409  6.7215 226 232 230
-0.0942069    1.35585    6.71351 0 7 3
-1.67599  1.94672  6.12913 167 163 160
-1.9072 1.96516 6.12495 163 162 158
-0.29923  1.99884  5.96093 156 157 151
-1.45228  1.98315  5.89161 158 159 153
  2.47274 -0.553499   10.7643 118 133 174
 3.58416 -0.53058  10.3911  89 110 131
  2.23381 -0.510338   10.7396  88 113 133
   2.2686 -0.190602    10.537  81 108 127
  1.41713 -0.155877    10.432  86 112 129
   2.52498 -0.0531029    10.4206  69  82 114
 3.83651 0.138174  9.61939  71  82 110
  4.9102 0.210199  9.13133  87 104 120
 2.54955 0.285174     10.1  74  90 116
 2.47708 0.505087  9.39195  76  87 117
 1.47648 0.736351   8.0936 127  35  86
-1.29045  1.20902  7.01467  2 48 38
-0.574577    1.2942   6.94526  0 32 22
1.29059 1.40651 6.52923  3 44 38
0.967667   1.4407  6.46679 231 237 235
-1.89588  1.91012  6.37922 159 161 158
-1.15551  1.96897  6.06718  77  83 117
-2.15089  1.99165  5.85307 161 160 155
-0.617324   2.02933   5.84094  90 110 134
-1.56209  2.03757  5.80349  88 110 134
-1.6978 2.08727 5.62201 161 160 158
-0.369582  0.499403   7.33045  2  7 10
0.551931  1.33598  6.65804 1 3 2
1.15921 1.44246 6.46468 112 127 120
-0.751808   1.95234   6.32318 149 149 137
-0.64249  1.96526  6.05322  70  82 120
-2.01086  1.95992  5.95085  78  92 129
-2.92628  1.99412  5.62725  83 105 129
-2.03159  2.04126  5.73245  88 110 134
-2.72997  2.01682  5.64135  87 107 131
-1.7971 2.05042 5.73445  71  83 121
-0.549441   2.06472   5.70705 164 164 156
0.835606 0.546693  7.44347 19 24 20
-0.835889  0.693053   7.92913 192 192 190
0.687415 0.644235  7.26395 143 153 152
0.958333  1.23515  6.86843 0 3 2
2.70343 1.79716 5.90555  62  94 115
1.36754 1.28452 6.80467 187 188 182
 5.98101 -1.26051  12.2243 135 142 135
 1.45948 0.947919  7.42044 235 236 231
-0.201142  0.206498   7.21999 74 81 91
-0.237141  0.223936   7.20474 85 87 99
-0.233201  0.266171   7.19321 238 245 255
0.704979 0.275101  7.34239 40 46 60
-1.12639 0.926554  7.68427 57 98 84
-0.556382   1.34592   6.75247 214 236 233
1.31039 1.17066 6.98447 24 60 48
1.38654 1.26253 6.88867 84 83 78
 0.36936 -1.07524  7.08727 73 74 76
-0.180843  0.153378   7.23588 45 48 57
-0.901835   1.37438   6.70957 35 93 81
0.708891 0.377408  7.34053 225 232 240
1.03001 0.34056 9.08766 223 206 224
0.924161  1.42908  6.49802 61 97 85
-1.13991 0.905715  7.67532 237 239 238
-0.318374   1.37614   6.69511  0 71 53
0.138209  1.37962   6.6319  0 23 17
0.438997  1.39494  6.62849 226 235 230
 0.44724 -1.35525  6.68822  0  7 15
0.709848 0.196142  7.32258 57 71 84
0.138611  1.31488  6.69051  8 14 14
-0.0986441  -0.570106    11.2273 148 171 179
  3.17889 -0.118666   10.1157  91  94 109
 -0.167244 -0.0489965    7.28522 40 48 61
 2.70367 0.548228  9.24878 74 87 95
-0.207046   0.15136   7.23642 56 59 64
-0.223917   0.18697   7.22456 58 61 66
-0.608647  0.491226    8.7706 202 183 203
-0.763882  0.544269    8.6117 134  47  98
-0.278128  0.325161   7.13954 184 191 199
0.649608 0.616696  7.14787 44 47 52
 1.1132 1.23965 6.98435 4 5 0
1.05298 1.25118 6.95846  8 10  7
1.46193 1.31335 6.74045 174 189 182
1.26628  1.3259  6.7241 113 124 120
 1.3347 1.35603 6.63948 125 132 125
-0.166817   1.35317   6.73864 198 195 180
1.13305 1.43916 6.43856 126 129 110
0.756163  1.50431  6.30108 29 54 33
0.387931  1.49811  6.34389 140 173 164
0.853944  1.51394  6.26282  8 49 43
0.915544  1.52005  6.24544 190 204 191
1.23279 1.52381 6.19614 187 206 204
 0.639865 -0.853667    7.1365 163 178 183
  4.09557 -0.333741   9.99762  92  99 128
-0.474155 -0.375295   11.1065 166 173 166
 -0.139899 -0.0190216    9.94359 201 200 196
-0.182597 0.0716714   7.24703 25 29 38
 2.08739 0.683663  9.19585  98 106 108
0.716549 0.296555  7.34072 168 177 182
 1.34629 0.760253   8.1643 178 185 191
0.671343 0.519317  7.30682 74 71 80
1.15169 1.23968 6.98807 35 34 29
1.32318 1.27992 6.84124 62 58 55
1.38522 1.30638 6.76281 147 145 124
-1.45738  1.27422  6.80324 121 131 123
-1.23132  1.30276  6.75646 208 220 200
-0.563117   1.34969   6.70762 23 66 59
-0.0633549    1.37562     6.6684  6 49 39
-1.39989  1.34083  6.65289 210 210 198
1.03555 1.45065 6.43655 39 79 52
-1.25752  1.38537   6.5486 204 212 199
0.842862  1.49811  6.31459 116 145 127
-1.13731   1.4336  6.47036 11 56 51
0.493571  1.50524   6.3137 196 210 193
0.494525  1.50534  6.31409 196 210 193
1.35219 1.53004 6.16954 196 223 204
-1.99751 -2.03238  14.8257 123 138 161
 2.69435 -1.48434  12.9302 161 171 170
 6.58003 -1.04589  11.6332  75  88 123
 0.510856 -0.675741   11.1668  72  84 126
 2.06763 0.720989  9.08565  94 103 110
0.707314 0.416718  7.33231 186 193 199
0.708219 0.493426  7.31223 211 212 204
2.97308 1.12136 7.42623  83  88 107
-1.18422  1.06034  7.33747 23 68 63
-1.48405  1.11207  7.17416  5 55 52
-0.931429   1.34691    6.7003 14 60 34
-1.35965   1.3464    6.628 174 192 192
-1.38322  1.34858  6.63003 42 67 63
0.472956  1.49401  6.35349 10 63 37
1.32232 1.50985 6.23794 170 193 187
-1.21575  1.43182  6.46594 17 47 45
0.972704  1.51748  6.24372 159 181 178
2.20243 2.06878 5.48352  73  82 111
 4.55503 -1.89586  13.6951 104 120 146
-3.77727 -2.05071  14.7797 148 160 182
-0.997364  0.846935   7.87333 111 161  88
-0.78905 0.894847    7.813  78 143  87
-1.04987  1.11132  7.25592 32 63 58
-0.574781   1.21825   7.04852  0 14  8
0.838355  1.32222  6.78827 172 181 176
1.23785  1.3288  6.7196 17 62 39
-0.269925   1.34653   6.74258  3 36 29
0.770372  1.50426  6.30226 16 60 33
-1.7678 1.58854 6.46144 132 126 126
-1.33766 -1.94267  14.6884 114 127 161
-4.46192 -1.92019  14.8853 149 167 179
3.64034  -1.423 12.4433 163 171 173
  3.23484 -0.899516   11.3749 152 164 164
-3.61392 -0.73446  12.5037  96 101 143
-0.611087  0.379361    9.0088 226 197 202
 1.33885 0.789729   8.1252 26 28 25
1.43345 1.33567 6.68264 213 206 190
0.710076  1.34674  6.71948 187 193 189
-1.0675 1.29655 6.80629 19 54 34
-1.07152  1.42451  6.49791  4 54 45
-1.38101 -2.20952  15.0943 111 132 153
 3.38887 -1.58729  12.9121 147 161 161
  6.63177 -0.958628   11.4886 155 167 165
 2.24935 0.325154  10.0232 105 122 140
 3.45577 0.334542  9.13518 166 168 155
-1.13426  1.05032  7.38722 211 210 192
-1.44648  1.12043  7.17145 177 192 189
1.24787 1.41722 6.48932 17 54 46
0.554314  1.42369  6.54779  0 43 33
1.27506 1.43923  6.4036  5 50 45
-0.24684  1.42105   6.6181  1 47 37
0.11236 1.42648  6.5446  0 36 28
-1.18631  1.37924  6.58455  7 49 39
-5.76904 -2.56104  15.6605  91  95 133
-5.99409 -2.52187  15.7177 116 120 157
 5.30793 -1.63474  12.8526  99 117 141
-5.34795 -1.71009  14.7644 169 179 181
-2.63795 -1.53569   14.039 171 184 190
 6.52431 -0.89525  11.4008  73  83 118
  3.40701 -0.887934   11.2492  90  95 135
  4.83191 -0.480609   10.2901 162 164 159
   2.63056 0.00856838    10.2651 153 166 159
 2.63595 0.186762  10.0938 149 156 149
 2.05684 0.796406  8.91278  76  88 110
 2.10102 0.820091  8.79619 152 157 150
-1.01752  1.03006  7.41617  0 43 25
-0.975107   1.07228   7.35955 211 210 192
0.801224  1.34039  6.75737 214 209 190
-1.00362  1.36528  6.67882  5 50 43
2.52321 1.68677 6.05538  70  84 123
-1.60963  -2.5227  15.8017 112 130 152
-1.84914 -1.39181  13.7266  69  86 130
  3.72024 -0.260861   10.1335 157 162 158
  2.41203 0.0776308   10.3019 157 169 167
 2.42539 0.252166   10.137 156 167 161
-1.60536 0.178292   10.285 155 167 163
 2.31358 0.858396  8.56342 169 170 156
 1.48277 0.754461  8.11462 146  26  90
 2.08398 0.913675  8.55759 165 166 152
 3.92448 0.928182  7.95512 109 123 132
-1.30192  1.02341  7.39344  7 48 42
-1.23534  1.06048  7.31782 187 193 191
-0.874454   1.09322   7.29635 182 191 186
-0.744727   1.16989   7.15769  0 44 24
-1.32479  1.13921   7.1244 199 201 198
-1.20981  1.18616  7.02522 216 209 191
-1.09476  1.23866  6.91571  0 52 42
0.863621  1.38819  6.62898  0 47 26
0.171547  1.41042  6.56169 203 206 189
0.550034   1.4676  6.43509  0 37 29
-5.68463 -2.00892  14.9155  78  89 143
  2.27799 -0.533169   10.9206  92 118 141
 3.59221 -0.32881  10.2025  90 111 128
 3.60711 -0.14176  10.0498  83  92 123
3.57006 0.39882 9.04295  95 113 127
 3.29095 0.594536  8.58755 101 119 131
1.98807 1.35926 7.42885 160 162 148
-1.06448  1.18572  7.05417 202 202 200
 1.9974 1.47809 7.21266 151 151 139
-0.381825   1.29315   6.84071  0 23 15
 2.44238 0.682692  8.88669  80  94 121
  3.9915 0.731725  8.38234  92 110 122
-2.02876  1.01943  8.46334  93 113 138
1.32496 1.03749 7.28146 181 182 176
2.09349  1.3662 7.30156  76 102 119
-0.209749    1.3837    6.6962 181 186 182
1.81988 1.93978 6.07517 149 155 151
2.10817 1.52217 7.06791  81 106 126
1.34727 1.32368 6.65993 215 210 191
2.05304  1.6204 6.63137  77 100 118
-1.81183 -2.19371  15.1684 102 111 152
 2.25482 0.692003   8.7939 100 118 138
-1.13478 0.710018  7.99343 206 206 204
    2.563 -0.445479   10.6766 144 145 150
0.697885 0.145482  7.35222 195 204 213
-0.229003  0.114757    7.2557 41 47 59
-0.180825  0.150388   7.24355 49 54 60
-0.195225  0.184406   7.23121 48 52 64
-0.203201  0.206185   7.22437 36 40 52
-0.220194  0.255565   7.21067 36 35 49
-0.333319  0.316992   7.29694 22 24 23
-0.302494  0.304455    7.1638 50 55 74
-0.280715  0.313833   7.15252 77 80 95
-1.10182 0.913288   7.6717  81 140  86
1.15388 1.24064 6.99128 46 33 16
1.24543 1.25594 6.92045 39 28 10
-1.20544  1.29032  6.79345 138 135 118
0.969315  1.41502  6.54008  94 137 127
-0.563012   1.37748   6.65812 173 198 192
0.892338  1.43912  6.47961 123 132 129
-1.27243   1.3525  6.63815 155 176 167
-1.21378  1.36201   6.6294 199 226 211
-1.03353  1.38133  6.60425 186 219 200
-1.28138  1.36961  6.59757 199 215 202
-1.39392  1.36582  6.59519 21 50 30
0.369085  1.47774  6.39805 186 217 202
0.435079  1.48294    6.394 197 226 206
0.886862  1.50031   6.3084 184 214 206
1.01126 1.50309 6.28271 203 221 205
0.712237  1.50641  6.27599 170 193 187
0.868576  1.51362   6.2592 179 196 190
1.03689 1.52026 6.23193 191 205 190
-1.24267  1.42114  6.48223  6 47 39
-1.19873  1.42507  6.47491 185 209 195
-1.27053  1.41915  6.47111 19 55 53
 -1.39034 -0.819126   12.4017  88 104 138
  2.39676 -0.508445   10.7591 149 160 166
 0.396905 0.0122603   9.81206 191 187 184
-0.428541  0.387841   8.96681 129  35  69
-0.234619  0.128056   7.24997 44 50 62
0.710885 0.456915  7.32649 194 202 205
-1.1441 0.89803 7.66273 201 205 204
-0.790579   1.07616   7.37271  0 42 37
 1.1529 1.24845 6.95774 209 198 180
1.23932 1.25197  6.9479 204 196 193
-1.27182   1.1254   7.1882 191 216 213
-0.437979    1.2921   6.87025 17 59 49
0.64694 1.35656 6.70933 165 186 181
-0.564971   1.32571   6.79769 52 86 61
-1.31361  1.27696  6.80403 209 221 201
-1.45757  1.27365  6.80128 149 150 132
-1.30889  1.28673  6.77681 10 65 33
-1.13333  1.31467  6.74251 210 214 199
-0.889293   1.33669   6.72895 110 131 126
-0.175884   1.38962    6.6444 206 207 191
-1.40018  1.34121  6.65284 186 204 204
-1.31486  1.34922  6.63886 207 220 202
-1.45062  1.34066  6.64386  0 49 31
-1.14482  1.37248  6.62147 175 204 200
-1.09275  1.37657  6.61553 194 221 206
-1.34492  1.36575  6.56905 14 65 58
-1.4152 1.36949 6.57305 218 221 212
-1.35926  1.37447   6.5626 202 212 203
-1.32736  1.37955   6.5616 218 216 204
-1.22591  1.39083  6.54758 213 216 205
0.533449  1.48737  6.37689 201 210 191
-1.15543  1.39848  6.53786 196 212 199
0.501709  1.48706  6.37222 138 147 130
0.559657  1.49085  6.36301 173 198 192
0.698561  1.49627  6.34261 167 196 191
0.980271  1.50172  6.29211 189 208 189
1.20779 1.50312 6.25579 203 227 205
1.32102 1.50701  6.2363 204 215 198
0.924353  1.51094   6.2672 22 57 33
0.842252  1.51362  6.27854 200 206 194
0.897487  1.51296  6.26225 203 205 191
0.547032   1.5076   6.3058 173 198 195
1.00152 1.51638  6.2416 175 202 195
-1.38232   1.4042  6.48947 15 60 39
-0.813202  -0.40294   11.2375  84  98 133
-1.80155 0.398042  9.91969 149 160 154
-0.575279  0.377131   9.01897 137  40  85
0.676949 0.148773  7.36604 21 27 39
-0.217344 0.0778783   7.24771 16 20 29
-0.200395  0.133273   7.24507 188 193 199
-0.812715   1.16902   7.13864  0 52 30
1.18388 1.26154 6.91796 34 22  8
-0.767541   1.19929   7.07753 13 56 49
-1.08142  1.18713  7.06855 199 208 203
-0.74936  1.27066  6.93034  7 58 49
-1.50883  1.21323  6.94196 19 67 51
-0.874127   1.26738    6.8847  0 48 29
-1.54387    1.227  6.91258 17 70 52
-0.311382   1.35457   6.72883 18 65 47
-0.343363      1.36   6.71217 191 205 188
1.05649 1.40853  6.5315 13 63 38
1.22688  1.4199 6.48441 16 55 36
-1.32096  1.30875  6.73418  0 50 31
-0.995811   1.38654    6.5916 137 184 176
-1.40615  1.35519  6.61217 206 208 197
-1.37783  1.36251  6.61014 191 199 202
-1.90956  1.67133  6.98019  64  85 116
0.473407  1.49478  6.35334 19 62 42
-1.54484  1.38597   6.5299 207 218 204
  1.273 1.51714 6.21123 196 201 181
-1.75935   1.8669  6.58973 133 127 129
 -0.35119 -0.518361   11.2033  79  98 131
 -2.12801 -0.156108   11.1763  80  92 130
-0.00349722   0.0103382     9.86085 180 182 177
-0.585444  0.311299   9.15787 232 196 208
-0.491905  0.372302   9.05421 134  41  94
-0.555234  0.580027   8.53003 225 190 210
0.674454 0.191567  7.33117  6 16 28
0.658097 0.346091  7.36673 153 157 160
-0.764612   1.07951   7.36657 213 219 205
1.06091  1.2508 6.98258 13 14  9
-0.789732   1.18528   7.11305 172 197 193
 1.2563 1.34278 6.68854 209 203 187
-0.825442   1.28301   6.85529  2 54 32
-0.822085   1.30344   6.82827 211 213 192
-0.233737   1.34246   6.75627 200 202 189
0.86491 1.39566 6.58635 11 59 35
-0.902441   1.31924   6.75264 215 212 195
0.13774 1.39666 6.62199  8 52 35
-1.19033  1.33872  6.70224  2 54 32
-1.06841   1.3919   6.5785 189 203 204
-2.74306  -1.3957  13.8752 131 157 174
 -1.2661 0.365143  10.1664 114 136 157
-0.431341   0.32353   9.16567 204 186 182
-0.137566    0.3685   9.10303 77 28 50
-0.694273  0.375126   9.00272 228 197 203
 -0.5085 0.525626  8.69052 213 182 187
-0.759648  0.809401   7.99833  88 141  89
-0.930825   1.09332   7.31309 20 54 29
1.27947 1.28501 6.83674 211 204 186
-0.920541   1.20948   7.03855 10 58 32
-1.39495  1.22578  6.91908 214 211 194
0.749262  1.35692   6.7081  3 47 32
-1.0722 1.27441 6.85346 212 210 197
-0.333234   1.34024   6.76662 181 197 196
-1.06681  1.29719  6.80578 14 55 47
-1.26536  1.28946  6.78695 216 210 196
1.09969 1.41134 6.53084 206 203 188
-1.09467  1.31036  6.75983 217 211 197
-1.0348 1.33082  6.7107 212 211 193
-0.966788   1.33828   6.70519 210 213 194
1.06797 1.44292 6.44625 208 207 189
-1.48556   1.3968  6.52705 52 74 61
-1.38763  1.94792   6.0904  77  92 131
-2.32913 -1.24801  13.5702 106 122 155
 -3.31371 0.0196939   10.8909 164 177 167
-0.805716   0.25071   9.33707 201 200 205
-0.275912  0.343814   9.13696 175 155 144
-0.459696  0.392144   8.99809 197 183 174
-0.865068  0.386048   8.95352 141  41 103
-0.883837  0.434321   8.89136 200 199 204
-0.629638  0.503918   8.73691 217 196 193
-0.706074  0.548323   8.57093 148  34  93
-0.929926  0.521103   8.56492 205 199 201
-0.659365  0.569219   8.54423 198 193 197
-2.61324 0.679288  9.01356  93 117 141
-0.941723   1.04426   7.40274  0 46 30
-0.812263   1.08464   7.33023  0 48 26
-1.81694  1.28274  7.76085  87 111 135
-1.07747  1.08743  7.27975 211 212 194
-1.2592 1.12821 7.17166 142 150 135
-1.01262   1.2137  7.01508  0 47 26
-0.945555   1.23344   6.97138 195 202 195
0.991341  1.33867  6.73093  7 47 39
-0.975723   1.27993   6.87256 209 212 193
-0.286473   1.33721   6.74267  0 40 33
-0.716838   1.32705   6.76255  6 56 31
0.627516  1.40055  6.60815 204 201 182
-1.42942  1.28649  6.77173 219 214 195
-0.137249   1.38903   6.64654  6 57 40
-1.51259  1.34648  6.62955  3 54 49
0.597494  1.50007  6.33568  0 49 30
-1.2505 1.42213  6.4754 13 60 40
-4.03536 -2.15792  15.0199 163 173 182
 -3.2822 -2.09283  14.6251 103 127 155
-3.15843 -2.01872  14.5545 157 172 179
-1.39423 -1.88443  14.6751 176 190 191
-2.55412 -1.45904  14.0036 101 125 161
-1.23563 -1.05522  12.7445 164 178 179
   3.4909 -0.384156   10.3135 150 156 146
 1.6459 0.37813 9.04401 132  40  91
-0.726786   1.13348   7.24045 212 209 192
-0.917102   1.17954   7.09976 211 210 192
-1.26479  1.16525  7.10811  5 55 46
-1.4299 1.17605 7.04485 196 205 204
-0.325049   1.37347   6.67004  0 42 35
 -1.87664 -0.618079   12.1557 175 185 186
  -1.1723 -0.354091    11.312 154 170 170
-0.502953 -0.340771   11.0913 162 176 176
 -2.42053 -0.292321   11.4071  93 123 149
 -2.49968 -0.190366   11.3388 159 171 169
-1.83531 -0.17249  11.0811 160 174 175
-1.82282  0.24932  10.0589 156 168 166
-3.59021 0.278541  10.1057  91 115 139
-1.38818 0.494227  9.95837 157 168 164
-1.40169 0.564215  9.74177 155 160 156
-1.66451 0.882107  8.81016 159 165 165
-1.38696  1.01548  7.46415 201 201 199
-1.30637   1.0241   7.3854  2 53 34
1.21261 1.30459 6.78814  4 49 29
0.393589  1.42547  6.53283 210 205 185
0.609955  1.43618  6.48555 213 206 188
1.21302 1.44643 6.39337 215 209 193
1.31953 1.46076 6.35808  71 109  84
-0.612033 -0.406954   11.1668  75  90 131
  3.38931 -0.272863   10.2561  99 116 132
  2.73281 -0.126656   10.3223  96 117 136
  3.39267 -0.106618   10.0665  83  93 120
-1.71956 0.352089  9.97507  70  88 124
-1.51838 0.545921  9.88361  81  94 128
-1.91482 0.960756  8.56542 159 165 155
2.01326  1.1503 7.87249 160 162 148
-1.94125  1.11543  8.37158 171 174 163
-0.828815   1.14787    7.2029  0 44 23
-0.976427   1.15256   7.16759  0 46 27
1.51059  1.2699 6.85781  2 45 36
-1.78534  1.42176  7.47328 149 155 153
0.815743  1.47703  6.38447  0 46 27
-1.67075  1.88547  6.38969 167 169 166
    -1.5 0.397312  10.0116  71  86 127
-2.86518 0.489265  9.45621  84  96 134
 2.1163 1.04217 7.98125  96 115 129
 -1.1869 0.861571   7.7255 218 212 198
2.08776 1.36187 7.29039  76 102 119
-1.75706  1.32273  7.69979 152 159 151
-0.650294   1.23456   7.02877 212 205 187
-1.30484  1.19288  6.98226  1 52 45
-1.91146  1.43233  7.33073  70  84 121
-0.213252   1.37818   6.67911 212 206 190
1.40589  1.4462 6.27125  0 40 32
-1.89876   1.8931  6.35249 167 168 163
-1.50266 0.670967  8.15797  78  92 129
0.0177177   1.40279    6.6158 159 171 149
0.920063  1.43653  6.48087 115 141 114
1.15682 1.43803 6.44333 126 135 114
1.45957 0.93765 7.38069 201 200 196
-1.62792  1.33092  6.58602  1 54 46
  4.55494 -0.618125   10.6496 147 154 138
-3.09048 -2.10523  15.3242  97 116 159
 3.01963 0.842953  8.16463 160 153 127
  3.17558 -0.125613   10.1081 112 106 110
 -0.167891 -0.0531343    7.27678 46 44 55
-0.743785  0.544227   8.60946 237 200 218
 0.65486 0.609174  7.18171 52 47 43
0.654172 0.619214  7.16515 65 58 50
1.55237 1.21088 6.94558 205 208 199
1.11359 1.23968 6.98718 25 17  0
1.38364 1.35359 6.64041 215 214 194
1.09648  1.3506 6.69675 208 213 193
1.07477 1.35093 6.69299 104 126 105
-1.15846  1.06905   7.3253 114 138 112
1.13229 1.43656 6.43718 126 129 110
-0.80955  1.18854  7.09542 121 130 111
-1.25999   1.1264  7.16384 120 139 120
0.218972  1.38448  6.65161 133 147 134
1.27336 1.50488  6.2421 209 212 193
1.09309 1.49892 6.27422 185 222 204
0.923851  1.49781  6.30682 193 218 196
1.19513  1.5246 6.19684 207 204 197
0.698362  1.49496  6.34095 200 215 196
-0.257502   1.38075   6.67811 137 142 122
0.648788  1.49092  6.35537 184 207 191
0.43409 1.48066 6.39162 197 226 206
0.547521  1.50816  6.30539 190 211 194
-0.870194   1.32801   6.78435 136 144 123
-1.44118  1.24857  6.87387 141 138 119
-1.2436 1.35574 6.63117 201 217 204
-1.27352  1.35134  6.63581 212 224 212
-1.31999  1.35623   6.6229 216 218 204
-1.07719  1.40894  6.52996 193 209 198
-1.11365  1.40706  6.53272 210 224 207
-1.1372 1.43072 6.46968  6 57 38
0.816545 0.480172   8.7877 84 17 34
0.678508 0.455269  7.32989 44 39 61
-0.329189  0.355898   7.03173 71 71 69
1.62665 1.10686 7.26368 210 207 200
1.28387 1.26461  6.8932 219 206 189
1.13036 1.25903 6.94246 40 27 11
1.44588 1.36919 6.60276  0 49 29
1.06542 1.44985 6.42137 211 209 196
1.32134 1.50704  6.2366 204 215 198
1.29424 1.52436 6.17889 196 214 188
0.800227  1.49694  6.32616 189 217 195
0.401693  1.50927  6.33174  1 46 23
-0.889443   1.33678   6.72892 137 145 124
-1.45762  1.27319  6.80069 149 150 132
-1.14472  1.36905  6.61712 193 220 203
-1.43255  1.33826  6.65851 141 186 165
-1.09427   1.4029  6.53612  0 51 28
-1.34561  1.36904  6.57643 11 57 31
-1.4585 1.39217 6.51444  4 53 34
-1.41506  1.40362  6.50236  0 55 30
-0.33181  1.99518   5.9941 177 172 153
  2.8988 -1.95754  13.8672 114 105 122
 2.39599 -1.61254   13.268 112 107 127
-0.866484 -0.391764   11.2332 101 103 124
-0.470132  0.314254   9.15332 146  44  91
-0.710238    0.3603   9.02702 161  47  98
-0.364642  0.519379   8.71743 204 162 174
-0.337781  0.518736   8.69435 131  36  76
 1.40229 0.803676   8.0453 117 117 151
-0.585467  0.583057   8.54892 156  38  96
 2.2196 1.44644 6.85793 84 86 98
1.29953 1.27769 6.85445 216 205 187
1.30156 1.30447 6.79033 25 70 39
 1.1022 1.33758 6.72211 57 87 61
